  0.000   0.000   0.000   0.000   0.000   0.000   0.000   0.000   0.000   0.000   0.000   0.000   0.000   0.000   0.000   0.000   0.000   0.000   0.000   0.000   0.000   0.000   0.000   0.000   0.000   0.000   0.000   0.000   0.000   0.000   0.000   0.000   0.000   0.000   0.000   0.000   0.000   0.000   0.000   0.000   0.000   0.000   0.000   0.000   0.000   0.000   0.000   0.000   0.000   0.000   0.000   0.000   0.000   0.000   0.000   0.000   0.000   0.000   0.000   0.000   0.000   0.000   0.000   0.000   0.000   0.000   0.000   0.000   0.000   0.000   0.000   0.000   0.000   0.000   0.000   0.000   0.000   0.000   0.000   0.000   0.000
  0.000   0.000   0.000   0.000   0.000   0.000   0.000   0.000   0.000   0.000   0.000   0.000   0.000   0.000   0.000   0.000   0.000   0.000   0.000   0.000   0.000   0.000   0.000   0.000   0.000   0.000   0.000   0.000   0.000   0.000   0.000   0.000   0.000   0.000   0.000   0.000   0.000   0.000   0.000   0.000   0.000   0.000   0.000   0.000   0.000   0.000   0.000   0.000   0.000   0.000   0.000   0.000   0.000   0.000   0.000   0.000   0.000   0.000   0.000   0.000   0.000   0.000   0.000   0.000   0.000   0.000   0.000   0.000   0.000   0.000   0.000   0.000   0.000   0.000   0.000   0.000   0.000   0.000   0.000   0.000   0.000
  0.000   0.000   0.000   0.000   0.000   0.000   0.000   0.000   0.000   0.000   0.000   0.000   0.000   0.000   0.000   0.000   0.000   0.000   0.000   0.000   0.000   0.000   0.000   0.000   0.000   0.000   0.000   0.000   0.000   0.000   0.000   0.000   0.000   0.000   0.000   0.000   0.000   0.000   0.000   0.000   0.000   0.000   0.000   0.000   0.000   0.000   0.000   0.000   0.000   0.000   0.000   0.000   0.000   0.000   0.000   0.000   0.000   0.000   0.000   0.000   0.000   0.000   0.000   0.000   0.000   0.000   0.000   0.000   0.000   0.000   0.000   0.000   0.000   0.000   0.000   0.000   0.000   0.000   0.000   0.000   0.000
  0.000   0.000   0.000   0.000   0.000   0.000   0.000   0.000   0.000   0.000   0.000   0.000   0.000   0.000   0.000   0.000   0.000   0.000   0.000   0.000   0.000   0.000   0.000   0.000   0.000   0.000   0.000   0.000   0.000   0.000   0.000   0.000   0.000   0.000   0.000   0.000   0.000   0.000   0.000   0.000   0.000   0.000   0.000   0.000   0.000   0.000   0.000   0.000   0.000   0.000   0.000   0.000   0.000   0.000   0.000   0.000   0.000   0.000   0.000   0.000   0.000   0.000   0.000   0.000   0.000   0.000   0.000   0.000   0.000   0.000   0.000   0.000   0.000   0.000   0.000   0.000   0.000   0.000   0.000   0.000   0.000
  0.000   0.000   0.000   0.000   0.000   0.000   0.000   0.000   0.000   0.000   0.000   0.000   0.000   0.000   0.000   0.000   0.000   0.000   0.000   0.000   0.000   0.000   0.000   0.000   0.000   0.000   0.000   0.000   0.000   0.000   0.000   0.000   0.000   0.000   0.000   0.000   0.000   0.000   0.000   0.000   0.000   0.000   0.000   0.000   0.000   0.000   0.000   0.000   0.000   0.000   0.000   0.000   0.000   0.000   0.000   0.000   0.000   0.000   0.000   0.000   0.000   0.000   0.000   0.000   0.000   0.000   0.000   0.000   0.000   0.000   0.000   0.000   0.000   0.000   0.000   0.000   0.000   0.000   0.000   0.000   0.000
  0.000   0.000   0.000   0.000   0.000   0.000   0.000   0.000   0.000   0.000   0.000   0.000   0.000   0.000   0.000   0.000   0.000   0.000   0.000   0.000   0.000   0.000   0.000   0.000   0.000   0.000   0.000   0.000   0.000   0.000   0.000   0.000   0.000   0.000   0.000   0.000   0.000   0.000   0.000   0.000   0.000   0.000   0.000   0.000   0.000   0.000   0.000   0.000   0.000   0.000   0.000   0.000   0.000   0.000   0.000   0.000   0.000   0.000   0.000   0.000   0.000   0.000   0.000   0.000   0.000   0.000   0.000   0.000   0.000   0.000   0.000   0.000   0.000   0.000   0.000   0.000   0.000   0.000   0.000   0.000   0.000
  0.000   0.000   0.000   0.000   0.000   0.000   0.000   0.000   0.000   0.000   0.000   0.000   0.000   0.000   0.000   0.000   0.000   0.000   0.000   0.000   0.000   0.000   0.000   0.000   0.000   0.000   0.000   0.000   0.000   0.000   0.000   0.000   0.000   0.000   0.000  -0.556  -1.174  -1.654  -1.996  -2.200  -2.269  -2.200  -1.996  -1.654  -1.174  -0.556   0.000   0.000   0.000   0.000   0.000   0.000   0.000   0.000   0.000   0.000   0.000   0.000   0.000   0.000   0.000   0.000   0.000   0.000   0.000   0.000   0.000   0.000   0.000   0.000   0.000   0.000   0.000   0.000   0.000   0.000   0.000   0.000   0.000   0.000   0.000
  0.000   0.000   0.000   0.000   0.000   0.000   0.000   0.000   0.000   0.000   0.000   0.000   0.000   0.000   0.000   0.000   0.000   0.000   0.000   0.000   0.000   0.000   0.000   0.000   0.000   0.000   0.000   0.000   0.000   0.000  -0.004  -1.311  -2.473  -3.492  -4.370  -5.111  -5.714  -6.182  -6.516  -6.715  -6.782  -6.715  -6.516  -6.182  -5.714  -5.111  -4.370  -3.492  -2.473  -1.311  -0.004   0.000   0.000   0.000   0.000   0.000   0.000   0.000   0.000   0.000   0.000   0.000   0.000   0.000   0.000   0.000   0.000   0.000   0.000   0.000   0.000   0.000   0.000   0.000   0.000   0.000   0.000   0.000   0.000   0.000   0.000
  0.000   0.000   0.000   0.000   0.000   0.000   0.000   0.000   0.000   0.000   0.000   0.000   0.000   0.000   0.000   0.000   0.000   0.000   0.000   0.000   0.000   0.000   0.000   0.000   0.000   0.000   0.000   0.000  -1.448  -3.017  -4.438  -5.714  -6.848  -7.844  -8.702  -9.425 -10.015 -10.473 -10.799 -10.994 -11.059 -10.994 -10.799 -10.473 -10.015  -9.425  -8.702  -7.844  -6.848  -5.714  -4.438  -3.017  -1.448   0.000   0.000   0.000   0.000   0.000   0.000   0.000   0.000   0.000   0.000   0.000   0.000   0.000   0.000   0.000   0.000   0.000   0.000   0.000   0.000   0.000   0.000   0.000   0.000   0.000   0.000   0.000   0.000
  0.000   0.000   0.000   0.000   0.000   0.000   0.000   0.000   0.000   0.000   0.000   0.000   0.000   0.000   0.000   0.000   0.000   0.000   0.000   0.000   0.000   0.000   0.000   0.000   0.000  -0.211  -2.200  -4.033  -5.714  -7.247  -8.636  -9.884 -10.994 -11.968 -12.808 -13.516 -14.094 -14.542 -14.861 -15.052 -15.116 -15.052 -14.861 -14.542 -14.094 -13.516 -12.808 -11.968 -10.994  -9.884  -8.636  -7.247  -5.714  -4.033  -2.200  -0.211   0.000   0.000   0.000   0.000   0.000   0.000   0.000   0.000   0.000   0.000   0.000   0.000   0.000   0.000   0.000   0.000   0.000   0.000   0.000   0.000   0.000   0.000   0.000   0.000   0.000
  0.000   0.000   0.000   0.000   0.000   0.000   0.000   0.000   0.000   0.000   0.000   0.000   0.000   0.000   0.000   0.000   0.000   0.000   0.000   0.000   0.000   0.000   0.000  -0.004  -2.269  -4.370  -6.315  -8.108  -9.753 -11.254 -12.615 -13.837 -14.925 -15.879 -16.703 -17.397 -17.963 -18.402 -18.715 -18.903 -18.966 -18.903 -18.715 -18.402 -17.963 -17.397 -16.703 -15.879 -14.925 -13.837 -12.615 -11.254  -9.753  -8.108  -6.315  -4.370  -2.269  -0.004   0.000   0.000   0.000   0.000   0.000   0.000   0.000   0.000   0.000   0.000   0.000   0.000   0.000   0.000   0.000   0.000   0.000   0.000   0.000   0.000   0.000   0.000   0.000
  0.000   0.000   0.000   0.000   0.000   0.000   0.000   0.000   0.000   0.000   0.000   0.000   0.000   0.000   0.000   0.000   0.000   0.000   0.000   0.000   0.000   0.000  -1.654  -4.033  -6.249  -8.306 -10.211 -11.968 -13.581 -15.052 -16.386 -17.586 -18.653 -19.590 -20.398 -21.079 -21.635 -22.066 -22.374 -22.558 -22.620 -22.558 -22.374 -22.066 -21.635 -21.079 -20.398 -19.590 -18.653 -17.586 -16.386 -15.052 -13.581 -11.968 -10.211  -8.306  -6.249  -4.033  -1.654   0.000   0.000   0.000   0.000   0.000   0.000   0.000   0.000   0.000   0.000   0.000   0.000   0.000   0.000   0.000   0.000   0.000   0.000   0.000   0.000   0.000   0.000
  0.000   0.000   0.000   0.000   0.000   0.000   0.000   0.000   0.000   0.000   0.000   0.000   0.000   0.000   0.000   0.000   0.000   0.000   0.000   0.000  -0.349  -3.017  -5.513  -7.844 -10.015 -12.033 -13.901 -15.625 -17.208 -18.653 -19.963 -21.141 -22.190 -23.110 -23.905 -24.574 -25.121 -25.545 -25.847 -26.028 -26.089 -26.028 -25.847 -25.545 -25.121 -24.574 -23.905 -23.110 -22.190 -21.141 -19.963 -18.653 -17.208 -15.625 -13.901 -12.033 -10.015  -7.844  -5.513  -3.017  -0.349   0.000   0.000   0.000   0.000   0.000   0.000   0.000   0.000   0.000   0.000   0.000   0.000   0.000   0.000   0.000   0.000   0.000   0.000   0.000   0.000
  0.000   0.000   0.000   0.000   0.000   0.000   0.000   0.000   0.000   0.000   0.000   0.000   0.000   0.000   0.000   0.000   0.000   0.000   0.000  -1.311  -4.101  -6.715  -9.163 -11.449 -13.581 -15.562 -17.397 -19.090 -20.646 -22.066 -23.355 -24.514 -25.545 -26.450 -27.232 -27.891 -28.429 -28.846 -29.144 -29.322 -29.382 -29.322 -29.144 -28.846 -28.429 -27.891 -27.232 -26.450 -25.545 -24.514 -23.355 -22.066 -20.646 -19.090 -17.397 -15.562 -13.581 -11.449  -9.163  -6.715  -4.101  -1.311   0.000   0.000   0.000   0.000   0.000   0.000   0.000   0.000   0.000   0.000   0.000   0.000   0.000   0.000   0.000   0.000   0.000   0.000   0.000
  0.000   0.000   0.000   0.000   0.000   0.000   0.000   0.000   0.000   0.000   0.000   0.000   0.000   0.000   0.000   0.000   0.000   0.000  -1.996  -4.909  -7.645 -10.211 -12.615 -14.861 -16.955 -18.903 -20.708 -22.374 -23.905 -25.303 -26.571 -27.712 -28.727 -29.619 -30.389 -31.039 -31.568 -31.980 -32.273 -32.449 -32.507 -32.449 -32.273 -31.980 -31.568 -31.039 -30.389 -29.619 -28.727 -27.712 -26.571 -25.303 -23.905 -22.374 -20.708 -18.903 -16.955 -14.861 -12.615 -10.211  -7.645  -4.909  -1.996   0.000   0.000   0.000   0.000   0.000   0.000   0.000   0.000   0.000   0.000   0.000   0.000   0.000   0.000   0.000   0.000   0.000   0.000
  0.000   0.000   0.000   0.000   0.000   0.000   0.000   0.000   0.000   0.000   0.000   0.000   0.000   0.000   0.000   0.000   0.000  -2.405  -5.446  -8.306 -10.994 -13.516 -15.879 -18.089 -20.150 -22.066 -23.844 -25.484 -26.992 -28.369 -29.619 -30.744 -31.745 -32.624 -33.383 -34.024 -34.546 -34.952 -35.241 -35.414 -35.472 -35.414 -35.241 -34.952 -34.546 -34.024 -33.383 -32.624 -31.745 -30.744 -29.619 -28.369 -26.992 -25.484 -23.844 -22.066 -20.150 -18.089 -15.879 -13.516 -10.994  -8.306  -5.446  -2.405   0.000   0.000   0.000   0.000   0.000   0.000   0.000   0.000   0.000   0.000   0.000   0.000   0.000   0.000   0.000   0.000   0.000
  0.000   0.000   0.000   0.000   0.000   0.000   0.000   0.000   0.000   0.000   0.000   0.000   0.000   0.000   0.000   0.000  -2.541  -5.714  -8.702 -11.514 -14.158 -16.639 -18.966 -21.141 -23.171 -25.060 -26.812 -28.429 -29.916 -31.274 -32.507 -33.616 -34.604 -35.472 -36.221 -36.853 -37.369 -37.769 -38.055 -38.226 -38.283 -38.226 -38.055 -37.769 -37.369 -36.853 -36.221 -35.472 -34.604 -33.616 -32.507 -31.274 -29.916 -28.429 -26.812 -25.060 -23.171 -21.141 -18.966 -16.639 -14.158 -11.514  -8.702  -5.714  -2.541   0.000   0.000   0.000   0.000   0.000   0.000   0.000   0.000   0.000   0.000   0.000   0.000   0.000   0.000   0.000   0.000
  0.000   0.000   0.000   0.000   0.000   0.000   0.000   0.000   0.000   0.000   0.000   0.000   0.000   0.000   0.000  -2.405  -5.714  -8.834 -11.774 -14.542 -17.145 -19.590 -21.882 -24.026 -26.028 -27.891 -29.619 -31.215 -32.683 -34.024 -35.241 -36.336 -37.312 -38.169 -38.909 -39.533 -40.042 -40.438 -40.720 -40.889 -40.945 -40.889 -40.720 -40.438 -40.042 -39.533 -38.909 -38.169 -37.312 -36.336 -35.241 -34.024 -32.683 -31.215 -29.619 -27.891 -26.028 -24.026 -21.882 -19.590 -17.145 -14.542 -11.774  -8.834  -5.714  -2.405   0.000   0.000   0.000   0.000   0.000   0.000   0.000   0.000   0.000   0.000   0.000   0.000   0.000   0.000   0.000
  0.000   0.000   0.000   0.000   0.000   0.000   0.000   0.000   0.000   0.000   0.000   0.000   0.000   0.000  -1.996  -5.446  -8.702 -11.774 -14.669 -17.397 -19.963 -22.374 -24.635 -26.751 -28.727 -30.567 -32.273 -33.849 -35.299 -36.624 -37.826 -38.909 -39.873 -40.720 -41.451 -42.069 -42.572 -42.963 -43.242 -43.409 -43.465 -43.409 -43.242 -42.963 -42.572 -42.069 -41.451 -40.720 -39.873 -38.909 -37.826 -36.624 -35.299 -33.849 -32.273 -30.567 -28.727 -26.751 -24.635 -22.374 -19.963 -17.397 -14.669 -11.774  -8.702  -5.446  -1.996   0.000   0.000   0.000   0.000   0.000   0.000   0.000   0.000   0.000   0.000   0.000   0.000   0.000   0.000
  0.000   0.000   0.000   0.000   0.000   0.000   0.000   0.000   0.000   0.000   0.000   0.000   0.000  -1.311  -4.909  -8.306 -11.514 -14.542 -17.397 -20.087 -22.620 -24.999 -27.232 -29.322 -31.274 -33.092 -34.778 -36.336 -37.769 -39.079 -40.268 -41.339 -42.293 -43.131 -43.854 -44.465 -44.963 -45.350 -45.626 -45.791 -45.847 -45.791 -45.626 -45.350 -44.963 -44.465 -43.854 -43.131 -42.293 -41.339 -40.268 -39.079 -37.769 -36.336 -34.778 -33.092 -31.274 -29.322 -27.232 -24.999 -22.620 -20.087 -17.397 -14.542 -11.514  -8.306  -4.909  -1.311   0.000   0.000   0.000   0.000   0.000   0.000   0.000   0.000   0.000   0.000   0.000   0.000   0.000
  0.000   0.000   0.000   0.000   0.000   0.000   0.000   0.000   0.000   0.000   0.000   0.000  -0.349  -4.101  -7.645 -10.994 -14.158 -17.145 -19.963 -22.620 -25.121 -27.472 -29.679 -31.745 -33.675 -35.472 -37.140 -38.681 -40.099 -41.395 -42.572 -43.632 -44.576 -45.405 -46.122 -46.726 -47.220 -47.603 -47.876 -48.040 -48.094 -48.040 -47.876 -47.603 -47.220 -46.726 -46.122 -45.405 -44.576 -43.632 -42.572 -41.395 -40.099 -38.681 -37.140 -35.472 -33.675 -31.745 -29.679 -27.472 -25.121 -22.620 -19.963 -17.145 -14.158 -10.994  -7.645  -4.101  -0.349   0.000   0.000   0.000   0.000   0.000   0.000   0.000   0.000   0.000   0.000   0.000   0.000
  0.000   0.000   0.000   0.000   0.000   0.000   0.000   0.000   0.000   0.000   0.000   0.000  -3.017  -6.715 -10.211 -13.516 -16.639 -19.590 -22.374 -24.999 -27.472 -29.797 -31.980 -34.024 -35.933 -37.712 -39.363 -40.889 -42.293 -43.576 -44.742 -45.791 -46.726 -47.548 -48.258 -48.857 -49.346 -49.725 -49.996 -50.158 -50.212 -50.158 -49.996 -49.725 -49.346 -48.857 -48.258 -47.548 -46.726 -45.791 -44.742 -43.576 -42.293 -40.889 -39.363 -37.712 -35.933 -34.024 -31.980 -29.797 -27.472 -24.999 -22.374 -19.590 -16.639 -13.516 -10.211  -6.715  -3.017   0.000   0.000   0.000   0.000   0.000   0.000   0.000   0.000   0.000   0.000   0.000   0.000
  0.000   0.000   0.000   0.000   0.000   0.000   0.000   0.000   0.000   0.000   0.000  -1.654  -5.513  -9.163 -12.615 -15.879 -18.966 -21.882 -24.635 -27.232 -29.679 -31.980 -34.140 -36.164 -38.055 -39.816 -41.451 -42.963 -44.354 -45.626 -46.781 -47.821 -48.748 -49.563 -50.266 -50.860 -51.345 -51.721 -51.989 -52.150 -52.204 -52.150 -51.989 -51.721 -51.345 -50.860 -50.266 -49.563 -48.748 -47.821 -46.781 -45.626 -44.354 -42.963 -41.451 -39.816 -38.055 -36.164 -34.140 -31.980 -29.679 -27.232 -24.635 -21.882 -18.966 -15.879 -12.615  -9.163  -5.513  -1.654   0.000   0.000   0.000   0.000   0.000   0.000   0.000   0.000   0.000   0.000   0.000
  0.000   0.000   0.000   0.000   0.000   0.000   0.000   0.000   0.000   0.000  -0.004  -4.033  -7.844 -11.449 -14.861 -18.089 -21.141 -24.026 -26.751 -29.322 -31.745 -34.024 -36.164 -38.169 -40.042 -41.788 -43.409 -44.908 -46.287 -47.548 -48.694 -49.725 -50.644 -51.452 -52.150 -52.739 -53.220 -53.593 -53.859 -54.019 -54.072 -54.019 -53.859 -53.593 -53.220 -52.739 -52.150 -51.452 -50.644 -49.725 -48.694 -47.548 -46.287 -44.908 -43.409 -41.788 -40.042 -38.169 -36.164 -34.024 -31.745 -29.322 -26.751 -24.026 -21.141 -18.089 -14.861 -11.449  -7.844  -4.033  -0.004   0.000   0.000   0.000   0.000   0.000   0.000   0.000   0.000   0.000   0.000
  0.000   0.000   0.000   0.000   0.000   0.000   0.000   0.000   0.000   0.000  -2.269  -6.249 -10.015 -13.581 -16.955 -20.150 -23.171 -26.028 -28.727 -31.274 -33.675 -35.933 -38.055 -40.042 -41.900 -43.632 -45.240 -46.726 -48.094 -49.346 -50.482 -51.506 -52.418 -53.220 -53.912 -54.497 -54.974 -55.344 -55.609 -55.767 -55.820 -55.767 -55.609 -55.344 -54.974 -54.497 -53.912 -53.220 -52.418 -51.506 -50.482 -49.346 -48.094 -46.726 -45.240 -43.632 -41.900 -40.042 -38.055 -35.933 -33.675 -31.274 -28.727 -26.028 -23.171 -20.150 -16.955 -13.581 -10.015  -6.249  -2.269   0.000   0.000   0.000   0.000   0.000   0.000   0.000   0.000   0.000   0.000
  0.000   0.000   0.000   0.000   0.000   0.000   0.000   0.000   0.000  -0.211  -4.370  -8.306 -12.033 -15.562 -18.903 -22.066 -25.060 -27.891 -30.567 -33.092 -35.472 -37.712 -39.816 -41.788 -43.632 -45.350 -46.946 -48.421 -49.779 -51.022 -52.150 -53.166 -54.072 -54.868 -55.556 -56.136 -56.610 -56.978 -57.241 -57.398 -57.450 -57.398 -57.241 -56.978 -56.610 -56.136 -55.556 -54.868 -54.072 -53.166 -52.150 -51.022 -49.779 -48.421 -46.946 -45.350 -43.632 -41.788 -39.816 -37.712 -35.472 -33.092 -30.567 -27.891 -25.060 -22.066 -18.903 -15.562 -12.033  -8.306  -4.370  -0.211   0.000   0.000   0.000   0.000   0.000   0.000   0.000   0.000   0.000
  0.000   0.000   0.000   0.000   0.000   0.000   0.000   0.000   0.000  -2.200  -6.315 -10.211 -13.901 -17.397 -20.708 -23.844 -26.812 -29.619 -32.273 -34.778 -37.140 -39.363 -41.451 -43.409 -45.240 -46.946 -48.530 -49.996 -51.345 -52.578 -53.699 -54.709 -55.609 -56.400 -57.083 -57.660 -58.131 -58.496 -58.757 -58.913 -58.966 -58.913 -58.757 -58.496 -58.131 -57.660 -57.083 -56.400 -55.609 -54.709 -53.699 -52.578 -51.345 -49.996 -48.530 -46.946 -45.240 -43.409 -41.451 -39.363 -37.140 -34.778 -32.273 -29.619 -26.812 -23.844 -20.708 -17.397 -13.901 -10.211  -6.315  -2.200   0.000   0.000   0.000   0.000   0.000   0.000   0.000   0.000   0.000
  0.000   0.000   0.000   0.000   0.000   0.000   0.000   0.000   0.000  -4.033  -8.108 -11.968 -15.625 -19.090 -22.374 -25.484 -28.429 -31.215 -33.849 -36.336 -38.681 -40.889 -42.963 -44.908 -46.726 -48.421 -49.996 -51.452 -52.792 -54.019 -55.133 -56.136 -57.031 -57.817 -58.496 -59.070 -59.538 -59.901 -60.160 -60.316 -60.368 -60.316 -60.160 -59.901 -59.538 -59.070 -58.496 -57.817 -57.031 -56.136 -55.133 -54.019 -52.792 -51.452 -49.996 -48.421 -46.726 -44.908 -42.963 -40.889 -38.681 -36.336 -33.849 -31.215 -28.429 -25.484 -22.374 -19.090 -15.625 -11.968  -8.108  -4.033   0.000   0.000   0.000   0.000   0.000   0.000   0.000   0.000   0.000
  0.000   0.000   0.000   0.000   0.000   0.000   0.000   0.000  -1.448  -5.714  -9.753 -13.581 -17.208 -20.646 -23.905 -26.992 -29.916 -32.683 -35.299 -37.769 -40.099 -42.293 -44.354 -46.287 -48.094 -49.779 -51.345 -52.792 -54.125 -55.344 -56.452 -57.450 -58.340 -59.122 -59.797 -60.368 -60.833 -61.195 -61.453 -61.607 -61.659 -61.607 -61.453 -61.195 -60.833 -60.368 -59.797 -59.122 -58.340 -57.450 -56.452 -55.344 -54.125 -52.792 -51.345 -49.779 -48.094 -46.287 -44.354 -42.293 -40.099 -37.769 -35.299 -32.683 -29.916 -26.992 -23.905 -20.646 -17.208 -13.581  -9.753  -5.714  -1.448   0.000   0.000   0.000   0.000   0.000   0.000   0.000   0.000
  0.000   0.000   0.000   0.000   0.000   0.000   0.000   0.000  -3.017  -7.247 -11.254 -15.052 -18.653 -22.066 -25.303 -28.369 -31.274 -34.024 -36.624 -39.079 -41.395 -43.576 -45.626 -47.548 -49.346 -51.022 -52.578 -54.019 -55.344 -56.558 -57.660 -58.653 -59.538 -60.316 -60.988 -61.556 -62.019 -62.379 -62.635 -62.789 -62.840 -62.789 -62.635 -62.379 -62.019 -61.556 -60.988 -60.316 -59.538 -58.653 -57.660 -56.558 -55.344 -54.019 -52.578 -51.022 -49.346 -47.548 -45.626 -43.576 -41.395 -39.079 -36.624 -34.024 -31.274 -28.369 -25.303 -22.066 -18.653 -15.052 -11.254  -7.247  -3.017   0.000   0.000   0.000   0.000   0.000   0.000   0.000   0.000
  0.000   0.000   0.000   0.000   0.000   0.000   0.000  -0.004  -4.438  -8.636 -12.615 -16.386 -19.963 -23.355 -26.571 -29.619 -32.507 -35.241 -37.826 -40.268 -42.572 -44.742 -46.781 -48.694 -50.482 -52.150 -53.699 -55.133 -56.452 -57.660 -58.757 -59.746 -60.626 -61.401 -62.070 -62.635 -63.097 -63.455 -63.710 -63.863 -63.914 -63.863 -63.710 -63.455 -63.097 -62.635 -62.070 -61.401 -60.626 -59.746 -58.757 -57.660 -56.452 -55.133 -53.699 -52.150 -50.482 -48.694 -46.781 -44.742 -42.572 -40.268 -37.826 -35.241 -32.507 -29.619 -26.571 -23.355 -19.963 -16.386 -12.615  -8.636  -4.438  -0.004   0.000   0.000   0.000   0.000   0.000   0.000   0.000
  0.000   0.000   0.000   0.000   0.000   0.000   0.000  -1.311  -5.714  -9.884 -13.837 -17.586 -21.141 -24.514 -27.712 -30.744 -33.616 -36.336 -38.909 -41.339 -43.632 -45.791 -47.821 -49.725 -51.506 -53.166 -54.709 -56.136 -57.450 -58.653 -59.746 -60.730 -61.607 -62.379 -63.045 -63.608 -64.068 -64.424 -64.679 -64.831 -64.882 -64.831 -64.679 -64.424 -64.068 -63.608 -63.045 -62.379 -61.607 -60.730 -59.746 -58.653 -57.450 -56.136 -54.709 -53.166 -51.506 -49.725 -47.821 -45.791 -43.632 -41.339 -38.909 -36.336 -33.616 -30.744 -27.712 -24.514 -21.141 -17.586 -13.837  -9.884  -5.714  -1.311   0.000   0.000   0.000   0.000   0.000   0.000   0.000
  0.000   0.000   0.000   0.000   0.000   0.000   0.000  -2.473  -6.848 -10.994 -14.925 -18.653 -22.190 -25.545 -28.727 -31.745 -34.604 -37.312 -39.873 -42.293 -44.576 -46.726 -48.748 -50.644 -52.418 -54.072 -55.609 -57.031 -58.340 -59.538 -60.626 -61.607 -62.481 -63.250 -63.914 -64.475 -64.933 -65.288 -65.542 -65.694 -65.745 -65.694 -65.542 -65.288 -64.933 -64.475 -63.914 -63.250 -62.481 -61.607 -60.626 -59.538 -58.340 -57.031 -55.609 -54.072 -52.418 -50.644 -48.748 -46.726 -44.576 -42.293 -39.873 -37.312 -34.604 -31.745 -28.727 -25.545 -22.190 -18.653 -14.925 -10.994  -6.848  -2.473   0.000   0.000   0.000   0.000   0.000   0.000   0.000
  0.000   0.000   0.000   0.000   0.000   0.000   0.000  -3.492  -7.844 -11.968 -15.879 -19.590 -23.110 -26.450 -29.619 -32.624 -35.472 -38.169 -40.720 -43.131 -45.405 -47.548 -49.563 -51.452 -53.220 -54.868 -56.400 -57.817 -59.122 -60.316 -61.401 -62.379 -63.250 -64.017 -64.679 -65.238 -65.694 -66.049 -66.301 -66.453 -66.503 -66.453 -66.301 -66.049 -65.694 -65.238 -64.679 -64.017 -63.250 -62.379 -61.401 -60.316 -59.122 -57.817 -56.400 -54.868 -53.220 -51.452 -49.563 -47.548 -45.405 -43.131 -40.720 -38.169 -35.472 -32.624 -29.619 -26.450 -23.110 -19.590 -15.879 -11.968  -7.844  -3.492   0.000   0.000   0.000   0.000   0.000   0.000   0.000
  0.000   0.000   0.000   0.000   0.000   0.000   0.000  -4.370  -8.702 -12.808 -16.703 -20.398 -23.905 -27.232 -30.389 -33.383 -36.221 -38.909 -41.451 -43.854 -46.122 -48.258 -50.266 -52.150 -53.912 -55.556 -57.083 -58.496 -59.797 -60.988 -62.070 -63.045 -63.914 -64.679 -65.339 -65.897 -66.352 -66.705 -66.957 -67.109 -67.159 -67.109 -66.957 -66.705 -66.352 -65.897 -65.339 -64.679 -63.914 -63.045 -62.070 -60.988 -59.797 -58.496 -57.083 -55.556 -53.912 -52.150 -50.266 -48.258 -46.122 -43.854 -41.451 -38.909 -36.221 -33.383 -30.389 -27.232 -23.905 -20.398 -16.703 -12.808  -8.702  -4.370   0.000   0.000   0.000   0.000   0.000   0.000   0.000
  0.000   0.000   0.000   0.000   0.000   0.000  -0.556  -5.111  -9.425 -13.516 -17.397 -21.079 -24.574 -27.891 -31.039 -34.024 -36.853 -39.533 -42.069 -44.465 -46.726 -48.857 -50.860 -52.739 -54.497 -56.136 -57.660 -59.070 -60.368 -61.556 -62.635 -63.608 -64.475 -65.238 -65.897 -66.453 -66.907 -67.260 -67.511 -67.662 -67.712 -67.662 -67.511 -67.260 -66.907 -66.453 -65.897 -65.238 -64.475 -63.608 -62.635 -61.556 -60.368 -59.070 -57.660 -56.136 -54.497 -52.739 -50.860 -48.857 -46.726 -44.465 -42.069 -39.533 -36.853 -34.024 -31.039 -27.891 -24.574 -21.079 -17.397 -13.516  -9.425  -5.111  -0.556   0.000   0.000   0.000   0.000   0.000   0.000
  0.000   0.000   0.000   0.000   0.000   0.000  -1.174  -5.714 -10.015 -14.094 -17.963 -21.635 -25.121 -28.429 -31.568 -34.546 -37.369 -40.042 -42.572 -44.963 -47.220 -49.346 -51.345 -53.220 -54.974 -56.610 -58.131 -59.538 -60.833 -62.019 -63.097 -64.068 -64.933 -65.694 -66.352 -66.907 -67.360 -67.712 -67.964 -68.114 -68.164 -68.114 -67.964 -67.712 -67.360 -66.907 -66.352 -65.694 -64.933 -64.068 -63.097 -62.019 -60.833 -59.538 -58.131 -56.610 -54.974 -53.220 -51.345 -49.346 -47.220 -44.963 -42.572 -40.042 -37.369 -34.546 -31.568 -28.429 -25.121 -21.635 -17.963 -14.094 -10.015  -5.714  -1.174   0.000   0.000   0.000   0.000   0.000   0.000
  0.000   0.000   0.000   0.000   0.000   0.000  -1.654  -6.182 -10.473 -14.542 -18.402 -22.066 -25.545 -28.846 -31.980 -34.952 -37.769 -40.438 -42.963 -45.350 -47.603 -49.725 -51.721 -53.593 -55.344 -56.978 -58.496 -59.901 -61.195 -62.379 -63.455 -64.424 -65.288 -66.049 -66.705 -67.260 -67.712 -68.064 -68.315 -68.465 -68.515 -68.465 -68.315 -68.064 -67.712 -67.260 -66.705 -66.049 -65.288 -64.424 -63.455 -62.379 -61.195 -59.901 -58.496 -56.978 -55.344 -53.593 -51.721 -49.725 -47.603 -45.350 -42.963 -40.438 -37.769 -34.952 -31.980 -28.846 -25.545 -22.066 -18.402 -14.542 -10.473  -6.182  -1.654   0.000   0.000   0.000   0.000   0.000   0.000
  0.000   0.000   0.000   0.000   0.000   0.000  -1.996  -6.516 -10.799 -14.861 -18.715 -22.374 -25.847 -29.144 -32.273 -35.241 -38.055 -40.720 -43.242 -45.626 -47.876 -49.996 -51.989 -53.859 -55.609 -57.241 -58.757 -60.160 -61.453 -62.635 -63.710 -64.679 -65.542 -66.301 -66.957 -67.511 -67.964 -68.315 -68.565 -68.715 -68.765 -68.715 -68.565 -68.315 -67.964 -67.511 -66.957 -66.301 -65.542 -64.679 -63.710 -62.635 -61.453 -60.160 -58.757 -57.241 -55.609 -53.859 -51.989 -49.996 -47.876 -45.626 -43.242 -40.720 -38.055 -35.241 -32.273 -29.144 -25.847 -22.374 -18.715 -14.861 -10.799  -6.516  -1.996   0.000   0.000   0.000   0.000   0.000   0.000
  0.000   0.000   0.000   0.000   0.000   0.000  -2.200  -6.715 -10.994 -15.052 -18.903 -22.558 -26.028 -29.322 -32.449 -35.414 -38.226 -40.889 -43.409 -45.791 -48.040 -50.158 -52.150 -54.019 -55.767 -57.398 -58.913 -60.316 -61.607 -62.789 -63.863 -64.831 -65.694 -66.453 -67.109 -67.662 -68.114 -68.465 -68.715 -68.865 -68.916 -68.865 -68.715 -68.465 -68.114 -67.662 -67.109 -66.453 -65.694 -64.831 -63.863 -62.789 -61.607 -60.316 -58.913 -57.398 -55.767 -54.019 -52.150 -50.158 -48.040 -45.791 -43.409 -40.889 -38.226 -35.414 -32.449 -29.322 -26.028 -22.558 -18.903 -15.052 -10.994  -6.715  -2.200   0.000   0.000   0.000   0.000   0.000   0.000
  0.000   0.000   0.000   0.000   0.000   0.000  -2.269  -6.782 -11.059 -15.116 -18.966 -22.620 -26.089 -29.382 -32.507 -35.472 -38.283 -40.945 -43.465 -45.847 -48.094 -50.212 -52.204 -54.072 -55.820 -57.450 -58.966 -60.368 -61.659 -62.840 -63.914 -64.882 -65.745 -66.503 -67.159 -67.712 -68.164 -68.515 -68.765 -68.916 -68.966 -68.916 -68.765 -68.515 -68.164 -67.712 -67.159 -66.503 -65.745 -64.882 -63.914 -62.840 -61.659 -60.368 -58.966 -57.450 -55.820 -54.072 -52.204 -50.212 -48.094 -45.847 -43.465 -40.945 -38.283 -35.472 -32.507 -29.382 -26.089 -22.620 -18.966 -15.116 -11.059  -6.782  -2.269   0.000   0.000   0.000   0.000   0.000   0.000
  0.000   0.000   0.000   0.000   0.000   0.000  -2.200  -6.715 -10.994 -15.052 -18.903 -22.558 -26.028 -29.322 -32.449 -35.414 -38.226 -40.889 -43.409 -45.791 -48.040 -50.158 -52.150 -54.019 -55.767 -57.398 -58.913 -60.316 -61.607 -62.789 -63.863 -64.831 -65.694 -66.453 -67.109 -67.662 -68.114 -68.465 -68.715 -68.865 -68.916 -68.865 -68.715 -68.465 -68.114 -67.662 -67.109 -66.453 -65.694 -64.831 -63.863 -62.789 -61.607 -60.316 -58.913 -57.398 -55.767 -54.019 -52.150 -50.158 -48.040 -45.791 -43.409 -40.889 -38.226 -35.414 -32.449 -29.322 -26.028 -22.558 -18.903 -15.052 -10.994  -6.715  -2.200   0.000   0.000   0.000   0.000   0.000   0.000
  0.000   0.000   0.000   0.000   0.000   0.000  -1.996  -6.516 -10.799 -14.861 -18.715 -22.374 -25.847 -29.144 -32.273 -35.241 -38.055 -40.720 -43.242 -45.626 -47.876 -49.996 -51.989 -53.859 -55.609 -57.241 -58.757 -60.160 -61.453 -62.635 -63.710 -64.679 -65.542 -66.301 -66.957 -67.511 -67.964 -68.315 -68.565 -68.715 -68.765 -68.715 -68.565 -68.315 -67.964 -67.511 -66.957 -66.301 -65.542 -64.679 -63.710 -62.635 -61.453 -60.160 -58.757 -57.241 -55.609 -53.859 -51.989 -49.996 -47.876 -45.626 -43.242 -40.720 -38.055 -35.241 -32.273 -29.144 -25.847 -22.374 -18.715 -14.861 -10.799  -6.516  -1.996   0.000   0.000   0.000   0.000   0.000   0.000
  0.000   0.000   0.000   0.000   0.000   0.000  -1.654  -6.182 -10.473 -14.542 -18.402 -22.066 -25.545 -28.846 -31.980 -34.952 -37.769 -40.438 -42.963 -45.350 -47.603 -49.725 -51.721 -53.593 -55.344 -56.978 -58.496 -59.901 -61.195 -62.379 -63.455 -64.424 -65.288 -66.049 -66.705 -67.260 -67.712 -68.064 -68.315 -68.465 -68.515 -68.465 -68.315 -68.064 -67.712 -67.260 -66.705 -66.049 -65.288 -64.424 -63.455 -62.379 -61.195 -59.901 -58.496 -56.978 -55.344 -53.593 -51.721 -49.725 -47.603 -45.350 -42.963 -40.438 -37.769 -34.952 -31.980 -28.846 -25.545 -22.066 -18.402 -14.542 -10.473  -6.182  -1.654   0.000   0.000   0.000   0.000   0.000   0.000
  0.000   0.000   0.000   0.000   0.000   0.000  -1.174  -5.714 -10.015 -14.094 -17.963 -21.635 -25.121 -28.429 -31.568 -34.546 -37.369 -40.042 -42.572 -44.963 -47.220 -49.346 -51.345 -53.220 -54.974 -56.610 -58.131 -59.538 -60.833 -62.019 -63.097 -64.068 -64.933 -65.694 -66.352 -66.907 -67.360 -67.712 -67.964 -68.114 -68.164 -68.114 -67.964 -67.712 -67.360 -66.907 -66.352 -65.694 -64.933 -64.068 -63.097 -62.019 -60.833 -59.538 -58.131 -56.610 -54.974 -53.220 -51.345 -49.346 -47.220 -44.963 -42.572 -40.042 -37.369 -34.546 -31.568 -28.429 -25.121 -21.635 -17.963 -14.094 -10.015  -5.714  -1.174   0.000   0.000   0.000   0.000   0.000   0.000
  0.000   0.000   0.000   0.000   0.000   0.000  -0.556  -5.111  -9.425 -13.516 -17.397 -21.079 -24.574 -27.891 -31.039 -34.024 -36.853 -39.533 -42.069 -44.465 -46.726 -48.857 -50.860 -52.739 -54.497 -56.136 -57.660 -59.070 -60.368 -61.556 -62.635 -63.608 -64.475 -65.238 -65.897 -66.453 -66.907 -67.260 -67.511 -67.662 -67.712 -67.662 -67.511 -67.260 -66.907 -66.453 -65.897 -65.238 -64.475 -63.608 -62.635 -61.556 -60.368 -59.070 -57.660 -56.136 -54.497 -52.739 -50.860 -48.857 -46.726 -44.465 -42.069 -39.533 -36.853 -34.024 -31.039 -27.891 -24.574 -21.079 -17.397 -13.516  -9.425  -5.111  -0.556   0.000   0.000   0.000   0.000   0.000   0.000
  0.000   0.000   0.000   0.000   0.000   0.000   0.000  -4.370  -8.702 -12.808 -16.703 -20.398 -23.905 -27.232 -30.389 -33.383 -36.221 -38.909 -41.451 -43.854 -46.122 -48.258 -50.266 -52.150 -53.912 -55.556 -57.083 -58.496 -59.797 -60.988 -62.070 -63.045 -63.914 -64.679 -65.339 -65.897 -66.352 -66.705 -66.957 -67.109 -67.159 -67.109 -66.957 -66.705 -66.352 -65.897 -65.339 -64.679 -63.914 -63.045 -62.070 -60.988 -59.797 -58.496 -57.083 -55.556 -53.912 -52.150 -50.266 -48.258 -46.122 -43.854 -41.451 -38.909 -36.221 -33.383 -30.389 -27.232 -23.905 -20.398 -16.703 -12.808  -8.702  -4.370   0.000   0.000   0.000   0.000   0.000   0.000   0.000
  0.000   0.000   0.000   0.000   0.000   0.000   0.000  -3.492  -7.844 -11.968 -15.879 -19.590 -23.110 -26.450 -29.619 -32.624 -35.472 -38.169 -40.720 -43.131 -45.405 -47.548 -49.563 -51.452 -53.220 -54.868 -56.400 -57.817 -59.122 -60.316 -61.401 -62.379 -63.250 -64.017 -64.679 -65.238 -65.694 -66.049 -66.301 -66.453 -66.503 -66.453 -66.301 -66.049 -65.694 -65.238 -64.679 -64.017 -63.250 -62.379 -61.401 -60.316 -59.122 -57.817 -56.400 -54.868 -53.220 -51.452 -49.563 -47.548 -45.405 -43.131 -40.720 -38.169 -35.472 -32.624 -29.619 -26.450 -23.110 -19.590 -15.879 -11.968  -7.844  -3.492   0.000   0.000   0.000   0.000   0.000   0.000   0.000
  0.000   0.000   0.000   0.000   0.000   0.000   0.000  -2.473  -6.848 -10.994 -14.925 -18.653 -22.190 -25.545 -28.727 -31.745 -34.604 -37.312 -39.873 -42.293 -44.576 -46.726 -48.748 -50.644 -52.418 -54.072 -55.609 -57.031 -58.340 -59.538 -60.626 -61.607 -62.481 -63.250 -63.914 -64.475 -64.933 -65.288 -65.542 -65.694 -65.745 -65.694 -65.542 -65.288 -64.933 -64.475 -63.914 -63.250 -62.481 -61.607 -60.626 -59.538 -58.340 -57.031 -55.609 -54.072 -52.418 -50.644 -48.748 -46.726 -44.576 -42.293 -39.873 -37.312 -34.604 -31.745 -28.727 -25.545 -22.190 -18.653 -14.925 -10.994  -6.848  -2.473   0.000   0.000   0.000   0.000   0.000   0.000   0.000
  0.000   0.000   0.000   0.000   0.000   0.000   0.000  -1.311  -5.714  -9.884 -13.837 -17.586 -21.141 -24.514 -27.712 -30.744 -33.616 -36.336 -38.909 -41.339 -43.632 -45.791 -47.821 -49.725 -51.506 -53.166 -54.709 -56.136 -57.450 -58.653 -59.746 -60.730 -61.607 -62.379 -63.045 -63.608 -64.068 -64.424 -64.679 -64.831 -64.882 -64.831 -64.679 -64.424 -64.068 -63.608 -63.045 -62.379 -61.607 -60.730 -59.746 -58.653 -57.450 -56.136 -54.709 -53.166 -51.506 -49.725 -47.821 -45.791 -43.632 -41.339 -38.909 -36.336 -33.616 -30.744 -27.712 -24.514 -21.141 -17.586 -13.837  -9.884  -5.714  -1.311   0.000   0.000   0.000   0.000   0.000   0.000   0.000
  0.000   0.000   0.000   0.000   0.000   0.000   0.000  -0.004  -4.438  -8.636 -12.615 -16.386 -19.963 -23.355 -26.571 -29.619 -32.507 -35.241 -37.826 -40.268 -42.572 -44.742 -46.781 -48.694 -50.482 -52.150 -53.699 -55.133 -56.452 -57.660 -58.757 -59.746 -60.626 -61.401 -62.070 -62.635 -63.097 -63.455 -63.710 -63.863 -63.914 -63.863 -63.710 -63.455 -63.097 -62.635 -62.070 -61.401 -60.626 -59.746 -58.757 -57.660 -56.452 -55.133 -53.699 -52.150 -50.482 -48.694 -46.781 -44.742 -42.572 -40.268 -37.826 -35.241 -32.507 -29.619 -26.571 -23.355 -19.963 -16.386 -12.615  -8.636  -4.438  -0.004   0.000   0.000   0.000   0.000   0.000   0.000   0.000
  0.000   0.000   0.000   0.000   0.000   0.000   0.000   0.000  -3.017  -7.247 -11.254 -15.052 -18.653 -22.066 -25.303 -28.369 -31.274 -34.024 -36.624 -39.079 -41.395 -43.576 -45.626 -47.548 -49.346 -51.022 -52.578 -54.019 -55.344 -56.558 -57.660 -58.653 -59.538 -60.316 -60.988 -61.556 -62.019 -62.379 -62.635 -62.789 -62.840 -62.789 -62.635 -62.379 -62.019 -61.556 -60.988 -60.316 -59.538 -58.653 -57.660 -56.558 -55.344 -54.019 -52.578 -51.022 -49.346 -47.548 -45.626 -43.576 -41.395 -39.079 -36.624 -34.024 -31.274 -28.369 -25.303 -22.066 -18.653 -15.052 -11.254  -7.247  -3.017   0.000   0.000   0.000   0.000   0.000   0.000   0.000   0.000
  0.000   0.000   0.000   0.000   0.000   0.000   0.000   0.000  -1.448  -5.714  -9.753 -13.581 -17.208 -20.646 -23.905 -26.992 -29.916 -32.683 -35.299 -37.769 -40.099 -42.293 -44.354 -46.287 -48.094 -49.779 -51.345 -52.792 -54.125 -55.344 -56.452 -57.450 -58.340 -59.122 -59.797 -60.368 -60.833 -61.195 -61.453 -61.607 -61.659 -61.607 -61.453 -61.195 -60.833 -60.368 -59.797 -59.122 -58.340 -57.450 -56.452 -55.344 -54.125 -52.792 -51.345 -49.779 -48.094 -46.287 -44.354 -42.293 -40.099 -37.769 -35.299 -32.683 -29.916 -26.992 -23.905 -20.646 -17.208 -13.581  -9.753  -5.714  -1.448   0.000   0.000   0.000   0.000   0.000   0.000   0.000   0.000
  0.000   0.000   0.000   0.000   0.000   0.000   0.000   0.000   0.000  -4.033  -8.108 -11.968 -15.625 -19.090 -22.374 -25.484 -28.429 -31.215 -33.849 -36.336 -38.681 -40.889 -42.963 -44.908 -46.726 -48.421 -49.996 -51.452 -52.792 -54.019 -55.133 -56.136 -57.031 -57.817 -58.496 -59.070 -59.538 -59.901 -60.160 -60.316 -60.368 -60.316 -60.160 -59.901 -59.538 -59.070 -58.496 -57.817 -57.031 -56.136 -55.133 -54.019 -52.792 -51.452 -49.996 -48.421 -46.726 -44.908 -42.963 -40.889 -38.681 -36.336 -33.849 -31.215 -28.429 -25.484 -22.374 -19.090 -15.625 -11.968  -8.108  -4.033   0.000   0.000   0.000   0.000   0.000   0.000   0.000   0.000   0.000
  0.000   0.000   0.000   0.000   0.000   0.000   0.000   0.000   0.000  -2.200  -6.315 -10.211 -13.901 -17.397 -20.708 -23.844 -26.812 -29.619 -32.273 -34.778 -37.140 -39.363 -41.451 -43.409 -45.240 -46.946 -48.530 -49.996 -51.345 -52.578 -53.699 -54.709 -55.609 -56.400 -57.083 -57.660 -58.131 -58.496 -58.757 -58.913 -58.966 -58.913 -58.757 -58.496 -58.131 -57.660 -57.083 -56.400 -55.609 -54.709 -53.699 -52.578 -51.345 -49.996 -48.530 -46.946 -45.240 -43.409 -41.451 -39.363 -37.140 -34.778 -32.273 -29.619 -26.812 -23.844 -20.708 -17.397 -13.901 -10.211  -6.315  -2.200   0.000   0.000   0.000   0.000   0.000   0.000   0.000   0.000   0.000
  0.000   0.000   0.000   0.000   0.000   0.000   0.000   0.000   0.000  -0.211  -4.370  -8.306 -12.033 -15.562 -18.903 -22.066 -25.060 -27.891 -30.567 -33.092 -35.472 -37.712 -39.816 -41.788 -43.632 -45.350 -46.946 -48.421 -49.779 -51.022 -52.150 -53.166 -54.072 -54.868 -55.556 -56.136 -56.610 -56.978 -57.241 -57.398 -57.450 -57.398 -57.241 -56.978 -56.610 -56.136 -55.556 -54.868 -54.072 -53.166 -52.150 -51.022 -49.779 -48.421 -46.946 -45.350 -43.632 -41.788 -39.816 -37.712 -35.472 -33.092 -30.567 -27.891 -25.060 -22.066 -18.903 -15.562 -12.033  -8.306  -4.370  -0.211   0.000   0.000   0.000   0.000   0.000   0.000   0.000   0.000   0.000
  0.000   0.000   0.000   0.000   0.000   0.000   0.000   0.000   0.000   0.000  -2.269  -6.249 -10.015 -13.581 -16.955 -20.150 -23.171 -26.028 -28.727 -31.274 -33.675 -35.933 -38.055 -40.042 -41.900 -43.632 -45.240 -46.726 -48.094 -49.346 -50.482 -51.506 -52.418 -53.220 -53.912 -54.497 -54.974 -55.344 -55.609 -55.767 -55.820 -55.767 -55.609 -55.344 -54.974 -54.497 -53.912 -53.220 -52.418 -51.506 -50.482 -49.346 -48.094 -46.726 -45.240 -43.632 -41.900 -40.042 -38.055 -35.933 -33.675 -31.274 -28.727 -26.028 -23.171 -20.150 -16.955 -13.581 -10.015  -6.249  -2.269   0.000   0.000   0.000   0.000   0.000   0.000   0.000   0.000   0.000   0.000
  0.000   0.000   0.000   0.000   0.000   0.000   0.000   0.000   0.000   0.000  -0.004  -4.033  -7.844 -11.449 -14.861 -18.089 -21.141 -24.026 -26.751 -29.322 -31.745 -34.024 -36.164 -38.169 -40.042 -41.788 -43.409 -44.908 -46.287 -47.548 -48.694 -49.725 -50.644 -51.452 -52.150 -52.739 -53.220 -53.593 -53.859 -54.019 -54.072 -54.019 -53.859 -53.593 -53.220 -52.739 -52.150 -51.452 -50.644 -49.725 -48.694 -47.548 -46.287 -44.908 -43.409 -41.788 -40.042 -38.169 -36.164 -34.024 -31.745 -29.322 -26.751 -24.026 -21.141 -18.089 -14.861 -11.449  -7.844  -4.033  -0.004   0.000   0.000   0.000   0.000   0.000   0.000   0.000   0.000   0.000   0.000
  0.000   0.000   0.000   0.000   0.000   0.000   0.000   0.000   0.000   0.000   0.000  -1.654  -5.513  -9.163 -12.615 -15.879 -18.966 -21.882 -24.635 -27.232 -29.679 -31.980 -34.140 -36.164 -38.055 -39.816 -41.451 -42.963 -44.354 -45.626 -46.781 -47.821 -48.748 -49.563 -50.266 -50.860 -51.345 -51.721 -51.989 -52.150 -52.204 -52.150 -51.989 -51.721 -51.345 -50.860 -50.266 -49.563 -48.748 -47.821 -46.781 -45.626 -44.354 -42.963 -41.451 -39.816 -38.055 -36.164 -34.140 -31.980 -29.679 -27.232 -24.635 -21.882 -18.966 -15.879 -12.615  -9.163  -5.513  -1.654   0.000   0.000   0.000   0.000   0.000   0.000   0.000   0.000   0.000   0.000   0.000
  0.000   0.000   0.000   0.000   0.000   0.000   0.000   0.000   0.000   0.000   0.000   0.000  -3.017  -6.715 -10.211 -13.516 -16.639 -19.590 -22.374 -24.999 -27.472 -29.797 -31.980 -34.024 -35.933 -37.712 -39.363 -40.889 -42.293 -43.576 -44.742 -45.791 -46.726 -47.548 -48.258 -48.857 -49.346 -49.725 -49.996 -50.158 -50.212 -50.158 -49.996 -49.725 -49.346 -48.857 -48.258 -47.548 -46.726 -45.791 -44.742 -43.576 -42.293 -40.889 -39.363 -37.712 -35.933 -34.024 -31.980 -29.797 -27.472 -24.999 -22.374 -19.590 -16.639 -13.516 -10.211  -6.715  -3.017   0.000   0.000   0.000   0.000   0.000   0.000   0.000   0.000   0.000   0.000   0.000   0.000
  0.000   0.000   0.000   0.000   0.000   0.000   0.000   0.000   0.000   0.000   0.000   0.000  -0.349  -4.101  -7.645 -10.994 -14.158 -17.145 -19.963 -22.620 -25.121 -27.472 -29.679 -31.745 -33.675 -35.472 -37.140 -38.681 -40.099 -41.395 -42.572 -43.632 -44.576 -45.405 -46.122 -46.726 -47.220 -47.603 -47.876 -48.040 -48.094 -48.040 -47.876 -47.603 -47.220 -46.726 -46.122 -45.405 -44.576 -43.632 -42.572 -41.395 -40.099 -38.681 -37.140 -35.472 -33.675 -31.745 -29.679 -27.472 -25.121 -22.620 -19.963 -17.145 -14.158 -10.994  -7.645  -4.101  -0.349   0.000   0.000   0.000   0.000   0.000   0.000   0.000   0.000   0.000   0.000   0.000   0.000
  0.000   0.000   0.000   0.000   0.000   0.000   0.000   0.000   0.000   0.000   0.000   0.000   0.000  -1.311  -4.909  -8.306 -11.514 -14.542 -17.397 -20.087 -22.620 -24.999 -27.232 -29.322 -31.274 -33.092 -34.778 -36.336 -37.769 -39.079 -40.268 -41.339 -42.293 -43.131 -43.854 -44.465 -44.963 -45.350 -45.626 -45.791 -45.847 -45.791 -45.626 -45.350 -44.963 -44.465 -43.854 -43.131 -42.293 -41.339 -40.268 -39.079 -37.769 -36.336 -34.778 -33.092 -31.274 -29.322 -27.232 -24.999 -22.620 -20.087 -17.397 -14.542 -11.514  -8.306  -4.909  -1.311   0.000   0.000   0.000   0.000   0.000   0.000   0.000   0.000   0.000   0.000   0.000   0.000   0.000
  0.000   0.000   0.000   0.000   0.000   0.000   0.000   0.000   0.000   0.000   0.000   0.000   0.000   0.000  -1.996  -5.446  -8.702 -11.774 -14.669 -17.397 -19.963 -22.374 -24.635 -26.751 -28.727 -30.567 -32.273 -33.849 -35.299 -36.624 -37.826 -38.909 -39.873 -40.720 -41.451 -42.069 -42.572 -42.963 -43.242 -43.409 -43.465 -43.409 -43.242 -42.963 -42.572 -42.069 -41.451 -40.720 -39.873 -38.909 -37.826 -36.624 -35.299 -33.849 -32.273 -30.567 -28.727 -26.751 -24.635 -22.374 -19.963 -17.397 -14.669 -11.774  -8.702  -5.446  -1.996   0.000   0.000   0.000   0.000   0.000   0.000   0.000   0.000   0.000   0.000   0.000   0.000   0.000   0.000
  0.000   0.000   0.000   0.000   0.000   0.000   0.000   0.000   0.000   0.000   0.000   0.000   0.000   0.000   0.000  -2.405  -5.714  -8.834 -11.774 -14.542 -17.145 -19.590 -21.882 -24.026 -26.028 -27.891 -29.619 -31.215 -32.683 -34.024 -35.241 -36.336 -37.312 -38.169 -38.909 -39.533 -40.042 -40.438 -40.720 -40.889 -40.945 -40.889 -40.720 -40.438 -40.042 -39.533 -38.909 -38.169 -37.312 -36.336 -35.241 -34.024 -32.683 -31.215 -29.619 -27.891 -26.028 -24.026 -21.882 -19.590 -17.145 -14.542 -11.774  -8.834  -5.714  -2.405   0.000   0.000   0.000   0.000   0.000   0.000   0.000   0.000   0.000   0.000   0.000   0.000   0.000   0.000   0.000
  0.000   0.000   0.000   0.000   0.000   0.000   0.000   0.000   0.000   0.000   0.000   0.000   0.000   0.000   0.000   0.000  -2.541  -5.714  -8.702 -11.514 -14.158 -16.639 -18.966 -21.141 -23.171 -25.060 -26.812 -28.429 -29.916 -31.274 -32.507 -33.616 -34.604 -35.472 -36.221 -36.853 -37.369 -37.769 -38.055 -38.226 -38.283 -38.226 -38.055 -37.769 -37.369 -36.853 -36.221 -35.472 -34.604 -33.616 -32.507 -31.274 -29.916 -28.429 -26.812 -25.060 -23.171 -21.141 -18.966 -16.639 -14.158 -11.514  -8.702  -5.714  -2.541   0.000   0.000   0.000   0.000   0.000   0.000   0.000   0.000   0.000   0.000   0.000   0.000   0.000   0.000   0.000   0.000
  0.000   0.000   0.000   0.000   0.000   0.000   0.000   0.000   0.000   0.000   0.000   0.000   0.000   0.000   0.000   0.000   0.000  -2.405  -5.446  -8.306 -10.994 -13.516 -15.879 -18.089 -20.150 -22.066 -23.844 -25.484 -26.992 -28.369 -29.619 -30.744 -31.745 -32.624 -33.383 -34.024 -34.546 -34.952 -35.241 -35.414 -35.472 -35.414 -35.241 -34.952 -34.546 -34.024 -33.383 -32.624 -31.745 -30.744 -29.619 -28.369 -26.992 -25.484 -23.844 -22.066 -20.150 -18.089 -15.879 -13.516 -10.994  -8.306  -5.446  -2.405   0.000   0.000   0.000   0.000   0.000   0.000   0.000   0.000   0.000   0.000   0.000   0.000   0.000   0.000   0.000   0.000   0.000
  0.000   0.000   0.000   0.000   0.000   0.000   0.000   0.000   0.000   0.000   0.000   0.000   0.000   0.000   0.000   0.000   0.000   0.000  -1.996  -4.909  -7.645 -10.211 -12.615 -14.861 -16.955 -18.903 -20.708 -22.374 -23.905 -25.303 -26.571 -27.712 -28.727 -29.619 -30.389 -31.039 -31.568 -31.980 -32.273 -32.449 -32.507 -32.449 -32.273 -31.980 -31.568 -31.039 -30.389 -29.619 -28.727 -27.712 -26.571 -25.303 -23.905 -22.374 -20.708 -18.903 -16.955 -14.861 -12.615 -10.211  -7.645  -4.909  -1.996   0.000   0.000   0.000   0.000   0.000   0.000   0.000   0.000   0.000   0.000   0.000   0.000   0.000   0.000   0.000   0.000   0.000   0.000
  0.000   0.000   0.000   0.000   0.000   0.000   0.000   0.000   0.000   0.000   0.000   0.000   0.000   0.000   0.000   0.000   0.000   0.000   0.000  -1.311  -4.101  -6.715  -9.163 -11.449 -13.581 -15.562 -17.397 -19.090 -20.646 -22.066 -23.355 -24.514 -25.545 -26.450 -27.232 -27.891 -28.429 -28.846 -29.144 -29.322 -29.382 -29.322 -29.144 -28.846 -28.429 -27.891 -27.232 -26.450 -25.545 -24.514 -23.355 -22.066 -20.646 -19.090 -17.397 -15.562 -13.581 -11.449  -9.163  -6.715  -4.101  -1.311   0.000   0.000   0.000   0.000   0.000   0.000   0.000   0.000   0.000   0.000   0.000   0.000   0.000   0.000   0.000   0.000   0.000   0.000   0.000
  0.000   0.000   0.000   0.000   0.000   0.000   0.000   0.000   0.000   0.000   0.000   0.000   0.000   0.000   0.000   0.000   0.000   0.000   0.000   0.000  -0.349  -3.017  -5.513  -7.844 -10.015 -12.033 -13.901 -15.625 -17.208 -18.653 -19.963 -21.141 -22.190 -23.110 -23.905 -24.574 -25.121 -25.545 -25.847 -26.028 -26.089 -26.028 -25.847 -25.545 -25.121 -24.574 -23.905 -23.110 -22.190 -21.141 -19.963 -18.653 -17.208 -15.625 -13.901 -12.033 -10.015  -7.844  -5.513  -3.017  -0.349   0.000   0.000   0.000   0.000   0.000   0.000   0.000   0.000   0.000   0.000   0.000   0.000   0.000   0.000   0.000   0.000   0.000   0.000   0.000   0.000
  0.000   0.000   0.000   0.000   0.000   0.000   0.000   0.000   0.000   0.000   0.000   0.000   0.000   0.000   0.000   0.000   0.000   0.000   0.000   0.000   0.000   0.000  -1.654  -4.033  -6.249  -8.306 -10.211 -11.968 -13.581 -15.052 -16.386 -17.586 -18.653 -19.590 -20.398 -21.079 -21.635 -22.066 -22.374 -22.558 -22.620 -22.558 -22.374 -22.066 -21.635 -21.079 -20.398 -19.590 -18.653 -17.586 -16.386 -15.052 -13.581 -11.968 -10.211  -8.306  -6.249  -4.033  -1.654   0.000   0.000   0.000   0.000   0.000   0.000   0.000   0.000   0.000   0.000   0.000   0.000   0.000   0.000   0.000   0.000   0.000   0.000   0.000   0.000   0.000   0.000
  0.000   0.000   0.000   0.000   0.000   0.000   0.000   0.000   0.000   0.000   0.000   0.000   0.000   0.000   0.000   0.000   0.000   0.000   0.000   0.000   0.000   0.000   0.000  -0.004  -2.269  -4.370  -6.315  -8.108  -9.753 -11.254 -12.615 -13.837 -14.925 -15.879 -16.703 -17.397 -17.963 -18.402 -18.715 -18.903 -18.966 -18.903 -18.715 -18.402 -17.963 -17.397 -16.703 -15.879 -14.925 -13.837 -12.615 -11.254  -9.753  -8.108  -6.315  -4.370  -2.269  -0.004   0.000   0.000   0.000   0.000   0.000   0.000   0.000   0.000   0.000   0.000   0.000   0.000   0.000   0.000   0.000   0.000   0.000   0.000   0.000   0.000   0.000   0.000   0.000
  0.000   0.000   0.000   0.000   0.000   0.000   0.000   0.000   0.000   0.000   0.000   0.000   0.000   0.000   0.000   0.000   0.000   0.000   0.000   0.000   0.000   0.000   0.000   0.000   0.000  -0.211  -2.200  -4.033  -5.714  -7.247  -8.636  -9.884 -10.994 -11.968 -12.808 -13.516 -14.094 -14.542 -14.861 -15.052 -15.116 -15.052 -14.861 -14.542 -14.094 -13.516 -12.808 -11.968 -10.994  -9.884  -8.636  -7.247  -5.714  -4.033  -2.200  -0.211   0.000   0.000   0.000   0.000   0.000   0.000   0.000   0.000   0.000   0.000   0.000   0.000   0.000   0.000   0.000   0.000   0.000   0.000   0.000   0.000   0.000   0.000   0.000   0.000   0.000
  0.000   0.000   0.000   0.000   0.000   0.000   0.000   0.000   0.000   0.000   0.000   0.000   0.000   0.000   0.000   0.000   0.000   0.000   0.000   0.000   0.000   0.000   0.000   0.000   0.000   0.000   0.000   0.000  -1.448  -3.017  -4.438  -5.714  -6.848  -7.844  -8.702  -9.425 -10.015 -10.473 -10.799 -10.994 -11.059 -10.994 -10.799 -10.473 -10.015  -9.425  -8.702  -7.844  -6.848  -5.714  -4.438  -3.017  -1.448   0.000   0.000   0.000   0.000   0.000   0.000   0.000   0.000   0.000   0.000   0.000   0.000   0.000   0.000   0.000   0.000   0.000   0.000   0.000   0.000   0.000   0.000   0.000   0.000   0.000   0.000   0.000   0.000
  0.000   0.000   0.000   0.000   0.000   0.000   0.000   0.000   0.000   0.000   0.000   0.000   0.000   0.000   0.000   0.000   0.000   0.000   0.000   0.000   0.000   0.000   0.000   0.000   0.000   0.000   0.000   0.000   0.000   0.000  -0.004  -1.311  -2.473  -3.492  -4.370  -5.111  -5.714  -6.182  -6.516  -6.715  -6.782  -6.715  -6.516  -6.182  -5.714  -5.111  -4.370  -3.492  -2.473  -1.311  -0.004   0.000   0.000   0.000   0.000   0.000   0.000   0.000   0.000   0.000   0.000   0.000   0.000   0.000   0.000   0.000   0.000   0.000   0.000   0.000   0.000   0.000   0.000   0.000   0.000   0.000   0.000   0.000   0.000   0.000   0.000
  0.000   0.000   0.000   0.000   0.000   0.000   0.000   0.000   0.000   0.000   0.000   0.000   0.000   0.000   0.000   0.000   0.000   0.000   0.000   0.000   0.000   0.000   0.000   0.000   0.000   0.000   0.000   0.000   0.000   0.000   0.000   0.000   0.000   0.000   0.000  -0.556  -1.174  -1.654  -1.996  -2.200  -2.269  -2.200  -1.996  -1.654  -1.174  -0.556   0.000   0.000   0.000   0.000   0.000   0.000   0.000   0.000   0.000   0.000   0.000   0.000   0.000   0.000   0.000   0.000   0.000   0.000   0.000   0.000   0.000   0.000   0.000   0.000   0.000   0.000   0.000   0.000   0.000   0.000   0.000   0.000   0.000   0.000   0.000
  0.000   0.000   0.000   0.000   0.000   0.000   0.000   0.000   0.000   0.000   0.000   0.000   0.000   0.000   0.000   0.000   0.000   0.000   0.000   0.000   0.000   0.000   0.000   0.000   0.000   0.000   0.000   0.000   0.000   0.000   0.000   0.000   0.000   0.000   0.000   0.000   0.000   0.000   0.000   0.000   0.000   0.000   0.000   0.000   0.000   0.000   0.000   0.000   0.000   0.000   0.000   0.000   0.000   0.000   0.000   0.000   0.000   0.000   0.000   0.000   0.000   0.000   0.000   0.000   0.000   0.000   0.000   0.000   0.000   0.000   0.000   0.000   0.000   0.000   0.000   0.000   0.000   0.000   0.000   0.000   0.000
  0.000   0.000   0.000   0.000   0.000   0.000   0.000   0.000   0.000   0.000   0.000   0.000   0.000   0.000   0.000   0.000   0.000   0.000   0.000   0.000   0.000   0.000   0.000   0.000   0.000   0.000   0.000   0.000   0.000   0.000   0.000   0.000   0.000   0.000   0.000   0.000   0.000   0.000   0.000   0.000   0.000   0.000   0.000   0.000   0.000   0.000   0.000   0.000   0.000   0.000   0.000   0.000   0.000   0.000   0.000   0.000   0.000   0.000   0.000   0.000   0.000   0.000   0.000   0.000   0.000   0.000   0.000   0.000   0.000   0.000   0.000   0.000   0.000   0.000   0.000   0.000   0.000   0.000   0.000   0.000   0.000
  0.000   0.000   0.000   0.000   0.000   0.000   0.000   0.000   0.000   0.000   0.000   0.000   0.000   0.000   0.000   0.000   0.000   0.000   0.000   0.000   0.000   0.000   0.000   0.000   0.000   0.000   0.000   0.000   0.000   0.000   0.000   0.000   0.000   0.000   0.000   0.000   0.000   0.000   0.000   0.000   0.000   0.000   0.000   0.000   0.000   0.000   0.000   0.000   0.000   0.000   0.000   0.000   0.000   0.000   0.000   0.000   0.000   0.000   0.000   0.000   0.000   0.000   0.000   0.000   0.000   0.000   0.000   0.000   0.000   0.000   0.000   0.000   0.000   0.000   0.000   0.000   0.000   0.000   0.000   0.000   0.000
  0.000   0.000   0.000   0.000   0.000   0.000   0.000   0.000   0.000   0.000   0.000   0.000   0.000   0.000   0.000   0.000   0.000   0.000   0.000   0.000   0.000   0.000   0.000   0.000   0.000   0.000   0.000   0.000   0.000   0.000   0.000   0.000   0.000   0.000   0.000   0.000   0.000   0.000   0.000   0.000   0.000   0.000   0.000   0.000   0.000   0.000   0.000   0.000   0.000   0.000   0.000   0.000   0.000   0.000   0.000   0.000   0.000   0.000   0.000   0.000   0.000   0.000   0.000   0.000   0.000   0.000   0.000   0.000   0.000   0.000   0.000   0.000   0.000   0.000   0.000   0.000   0.000   0.000   0.000   0.000   0.000
  0.000   0.000   0.000   0.000   0.000   0.000   0.000   0.000   0.000   0.000   0.000   0.000   0.000   0.000   0.000   0.000   0.000   0.000   0.000   0.000   0.000   0.000   0.000   0.000   0.000   0.000   0.000   0.000   0.000   0.000   0.000   0.000   0.000   0.000   0.000   0.000   0.000   0.000   0.000   0.000   0.000   0.000   0.000   0.000   0.000   0.000   0.000   0.000   0.000   0.000   0.000   0.000   0.000   0.000   0.000   0.000   0.000   0.000   0.000   0.000   0.000   0.000   0.000   0.000   0.000   0.000   0.000   0.000   0.000   0.000   0.000   0.000   0.000   0.000   0.000   0.000   0.000   0.000   0.000   0.000   0.000
  0.000   0.000   0.000   0.000   0.000   0.000   0.000   0.000   0.000   0.000   0.000   0.000   0.000   0.000   0.000   0.000   0.000   0.000   0.000   0.000   0.000   0.000   0.000   0.000   0.000   0.000   0.000   0.000   0.000   0.000   0.000   0.000   0.000   0.000   0.000   0.000   0.000   0.000   0.000   0.000   0.000   0.000   0.000   0.000   0.000   0.000   0.000   0.000   0.000   0.000   0.000   0.000   0.000   0.000   0.000   0.000   0.000   0.000   0.000   0.000   0.000   0.000   0.000   0.000   0.000   0.000   0.000   0.000   0.000   0.000   0.000   0.000   0.000   0.000   0.000   0.000   0.000   0.000   0.000   0.000   0.000
